ply
format ascii 1.0
element vertex 1512
property float x
property float y
property float z
property ushort intensity
end_header
4.572340 -2.020607 0.104172 205
4.572015 -2.020464 0.120034 127
4.571643 -2.020300 0.135896 35
4.571226 -2.020115 0.151756 54
4.570762 -2.019910 0.167614 187
4.570253 -2.019685 0.183471 205
4.569697 -2.019440 0.199326 229
4.569096 -2.019174 0.215179 252
4.568448 -2.018888 0.231030 159
4.578610 -2.008265 0.056578 70
4.578423 -2.008183 0.072443 238
4.578189 -2.008081 0.088308 98
4.577909 -2.007958 0.104172 252
4.577583 -2.007815 0.120034 213
4.577212 -2.007652 0.135896 172
4.576794 -2.007469 0.151756 13
4.576330 -2.007265 0.167614 123
4.575819 -2.007041 0.183471 229
4.575263 -2.006797 0.199326 174
4.574661 -2.006533 0.215179 121
4.574013 -2.006249 0.231030 250
4.584145 -1.995598 0.056578 160
4.583957 -1.995517 0.072443 108
4.583724 -1.995415 0.088308 196
4.583444 -1.995293 0.104172 163
4.583117 -1.995151 0.120034 36
4.582745 -1.994989 0.135896 76
4.582327 -1.994807 0.151756 44
4.581862 -1.994604 0.167614 78
4.581351 -1.994382 0.183471 141
4.580794 -1.994140 0.199326 127
4.580191 -1.993877 0.215179 45
4.579542 -1.993594 0.231030 180
4.589645 -1.982916 0.056578 46
4.589457 -1.982835 0.072443 103
4.589223 -1.982734 0.088308 187
4.588943 -1.982613 0.104172 49
4.588616 -1.982472 0.120034 57
4.588243 -1.982310 0.135896 35
4.587824 -1.982129 0.151756 65
4.587359 -1.981928 0.167614 219
4.586848 -1.981708 0.183471 71
4.586290 -1.981467 0.199326 231
4.585687 -1.981206 0.215179 194
4.585037 -1.980925 0.231030 198
4.687434 -1.739185 0.056578 158
4.687242 -1.739114 0.072443 130
4.687003 -1.739025 0.088308 175
4.686716 -1.738919 0.104172 173
4.686383 -1.738795 0.120034 79
4.686002 -1.738654 0.135896 139
4.685574 -1.738495 0.151756 28
4.685099 -1.738319 0.167614 69
4.684577 -1.738125 0.183471 42
4.684007 -1.737914 0.199326 88
4.683391 -1.737685 0.215179 200
4.682727 -1.737439 0.231030 51
4.692224 -1.726218 0.056578 249
4.692032 -1.726148 0.072443 133
4.691793 -1.726059 0.088308 100
4.691506 -1.725954 0.104172 34
4.691172 -1.725831 0.120034 156
4.690791 -1.725691 0.135896 61
4.690363 -1.725533 0.151756 48
4.689887 -1.725358 0.167614 188
4.689365 -1.725166 0.183471 251
4.688795 -1.724956 0.199326 46
4.688177 -1.724729 0.215179 85
4.687513 -1.724485 0.231030 125
4.696979 -1.713238 0.056578 116
4.696787 -1.713168 0.072443 204
4.696547 -1.713081 0.088308 149
4.696260 -1.712976 0.104172 139
4.695926 -1.712854 0.120034 122
4.695545 -1.712715 0.135896 130
4.695116 -1.712559 0.151756 72
4.694640 -1.712385 0.167614 170
4.694116 -1.712194 0.183471 181
4.693546 -1.711986 0.199326 189
4.692928 -1.711761 0.215179 112
4.692263 -1.711518 0.231030 149
4.701698 -1.700245 0.056578 21
4.701506 -1.700176 0.072443 20
4.701266 -1.700089 0.088308 141
4.700979 -1.699985 0.104172 62
4.700644 -1.699864 0.120034 56
4.700262 -1.699726 0.135896 175
4.699833 -1.699571 0.151756 29
4.699356 -1.699398 0.167614 168
4.698833 -1.699209 0.183471 82
4.698261 -1.699002 0.199326 187
4.697643 -1.698779 0.215179 129
4.696977 -1.698538 0.231030 218
4.706381 -1.687239 0.056578 226
4.706188 -1.687170 0.072443 113
4.705948 -1.687084 0.088308 32
4.705661 -1.686981 0.104172 66
4.705326 -1.686861 0.120034 38
4.704944 -1.686724 0.135896 65
4.704514 -1.686570 0.151756 148
4.704037 -1.686399 0.167614 68
4.703513 -1.686211 0.183471 207
4.702941 -1.686006 0.199326 201
4.702322 -1.685784 0.215179 121
4.701655 -1.685545 0.231030 232
4.863848 -1.157489 0.056578 246
4.863649 -1.157441 0.072443 186
4.863401 -1.157382 0.088308 197
4.863104 -1.157312 0.104172 61
4.862758 -1.157229 0.120034 114
4.862363 -1.157135 0.135896 70
4.861919 -1.157030 0.151756 219
4.861426 -1.156912 0.167614 182
4.860884 -1.156783 0.183471 35
4.860293 -1.156643 0.199326 245
4.859653 -1.156490 0.215179 253
4.858964 -1.156326 0.231030 139
4.867030 -1.144036 0.056578 69
4.866831 -1.143990 0.072443 248
4.866582 -1.143931 0.088308 153
4.866285 -1.143861 0.104172 246
4.865939 -1.143780 0.120034 129
4.865543 -1.143687 0.135896 47
4.865099 -1.143583 0.151756 39
4.864606 -1.143467 0.167614 99
4.864064 -1.143339 0.183471 186
4.863472 -1.143200 0.199326 184
4.862832 -1.143050 0.215179 43
4.862143 -1.142888 0.231030 233
4.870174 -1.130575 0.056578 203
4.869975 -1.130529 0.072443 152
4.869727 -1.130471 0.088308 118
4.869429 -1.130402 0.104172 234
4.869083 -1.130322 0.120034 104
4.868687 -1.130230 0.135896 202
4.868242 -1.130127 0.151756 74
4.867749 -1.130012 0.167614 123
4.867206 -1.129886 0.183471 142
4.866614 -1.129749 0.199326 60
4.865974 -1.129600 0.215179 74
4.865284 -1.129440 0.231030 127
4.873282 -1.117106 0.056578 98
4.873082 -1.117060 0.072443 210
4.872834 -1.117003 0.088308 12
4.872536 -1.116935 0.104172 99
4.872189 -1.116855 0.120034 61
4.871793 -1.116764 0.135896 199
4.871348 -1.116662 0.151756 123
4.870854 -1.116549 0.167614 147
4.870312 -1.116425 0.183471 165
4.869720 -1.116289 0.199326 172
4.869078 -1.116142 0.215179 81
4.868388 -1.115984 0.231030 101
4.876352 -1.103627 0.056578 16
4.876152 -1.103582 0.072443 11
4.875903 -1.103526 0.088308 187
4.875605 -1.103458 0.104172 84
4.875258 -1.103380 0.120034 227
4.874862 -1.103290 0.135896 35
4.874417 -1.103189 0.151756 182
4.873923 -1.103077 0.167614 137
4.873380 -1.102955 0.183471 254
4.872787 -1.102820 0.199326 72
4.872146 -1.102675 0.215179 93
4.871455 -1.102519 0.231030 217
4.922821 -0.873290 0.056578 223
4.922619 -0.873254 0.072443 35
4.922368 -0.873210 0.088308 240
4.922067 -0.873156 0.104172 36
4.921717 -0.873094 0.120034 174
4.921317 -0.873023 0.135896 222
4.920868 -0.872943 0.151756 61
4.920369 -0.872855 0.167614 173
4.919820 -0.872758 0.183471 151
4.919222 -0.872652 0.199326 231
4.918575 -0.872537 0.215179 102
4.917878 -0.872413 0.231030 163
4.925216 -0.859676 0.056578 216
4.925015 -0.859640 0.072443 44
4.924763 -0.859597 0.088308 238
4.924463 -0.859544 0.104172 59
4.924112 -0.859483 0.120034 50
4.923712 -0.859413 0.135896 99
4.923263 -0.859335 0.151756 17
4.922763 -0.859247 0.167614 201
4.922215 -0.859152 0.183471 36
4.921616 -0.859047 0.199326 222
4.920968 -0.858934 0.215179 30
4.920271 -0.858812 0.231030 176
4.927574 -0.846055 0.056578 234
4.927373 -0.846020 0.072443 68
4.927121 -0.845977 0.088308 243
4.926820 -0.845925 0.104172 42
4.926470 -0.845865 0.120034 184
4.926070 -0.845796 0.135896 83
4.925620 -0.845719 0.151756 122
4.925120 -0.845633 0.167614 18
4.924571 -0.845539 0.183471 200
4.923973 -0.845436 0.199326 230
4.923324 -0.845325 0.215179 46
4.922627 -0.845205 0.231030 134
4.929895 -0.832427 0.056578 205
4.929693 -0.832393 0.072443 115
4.929442 -0.832351 0.088308 220
4.929140 -0.832300 0.104172 201
4.928790 -0.832241 0.120034 243
4.928389 -0.832173 0.135896 247
4.927939 -0.832097 0.151756 207
4.927440 -0.832013 0.167614 44
4.926890 -0.831920 0.183471 225
4.926291 -0.831819 0.199326 68
4.925643 -0.831709 0.215179 140
4.924945 -0.831591 0.231030 118
4.966804 -0.572417 0.056578 143
4.966600 -0.572394 0.072443 29
4.966347 -0.572365 0.088308 80
4.966043 -0.572330 0.104172 200
4.965690 -0.572289 0.120034 28
4.965287 -0.572243 0.135896 86
4.964833 -0.572190 0.151756 41
4.964330 -0.572132 0.167614 105
4.963776 -0.572069 0.183471 108
4.963173 -0.571999 0.199326 203
4.962520 -0.571924 0.215179 70
4.961816 -0.571843 0.231030 116
4.968367 -0.558683 0.056578 106
4.968164 -0.558660 0.072443 37
4.967910 -0.558631 0.088308 75
4.967607 -0.558597 0.104172 122
4.967253 -0.558557 0.120034 28
4.966850 -0.558512 0.135896 180
4.966396 -0.558461 0.151756 178
4.965893 -0.558404 0.167614 226
4.965339 -0.558342 0.183471 203
4.964736 -0.558274 0.199326 223
4.964082 -0.558201 0.215179 237
4.963378 -0.558122 0.231030 84
4.969893 -0.544944 0.056578 217
4.969689 -0.544921 0.072443 219
4.969436 -0.544894 0.088308 55
4.969132 -0.544860 0.104172 201
4.968779 -0.544821 0.120034 115
4.968375 -0.544777 0.135896 50
4.967921 -0.544727 0.151756 43
4.967418 -0.544672 0.167614 22
4.966864 -0.544612 0.183471 81
4.966260 -0.544545 0.199326 157
4.965606 -0.544474 0.215179 145
4.964903 -0.544396 0.231030 230
4.971381 -0.531200 0.056578 244
4.971177 -0.531179 0.072443 92
4.970923 -0.531152 0.088308 25
4.970620 -0.531119 0.104172 172
4.970266 -0.531081 0.120034 25
4.969862 -0.531038 0.135896 86
4.969408 -0.530990 0.151756 229
4.968905 -0.530936 0.167614 184
4.968351 -0.530877 0.183471 246
4.967747 -0.530812 0.199326 252
4.967093 -0.530742 0.215179 223
4.966389 -0.530667 0.231030 88
4.972830 -0.517453 0.056578 231
4.972627 -0.517432 0.072443 68
4.972373 -0.517406 0.088308 117
4.972069 -0.517374 0.104172 232
4.971715 -0.517337 0.120034 187
4.971312 -0.517295 0.135896 70
4.970858 -0.517248 0.151756 155
4.970354 -0.517195 0.167614 202
4.969799 -0.517138 0.183471 135
4.969195 -0.517075 0.199326 131
4.968541 -0.517007 0.215179 103
4.967837 -0.516934 0.231030 105
4.974242 -0.503702 0.056578 172
4.974038 -0.503681 0.072443 94
4.973785 -0.503656 0.088308 207
4.973481 -0.503625 0.104172 51
4.973127 -0.503589 0.120034 89
4.972723 -0.503548 0.135896 255
4.972269 -0.503502 0.151756 208
4.971765 -0.503451 0.167614 190
4.971210 -0.503395 0.183471 220
4.970606 -0.503334 0.199326 140
4.969952 -0.503268 0.215179 234
4.969247 -0.503196 0.231030 97
4.983058 -0.407341 0.056578 243
4.982854 -0.407325 0.072443 187
4.982600 -0.407304 0.088308 72
4.982296 -0.407279 0.104172 244
4.981941 -0.407250 0.120034 29
4.981537 -0.407217 0.135896 170
4.981082 -0.407180 0.151756 208
4.980577 -0.407139 0.167614 247
4.980021 -0.407093 0.183471 201
4.979416 -0.407044 0.199326 50
4.978761 -0.406990 0.215179 145
4.978055 -0.406932 0.231030 173
4.984166 -0.393562 0.056578 127
4.983962 -0.393546 0.072443 43
4.983707 -0.393526 0.088308 11
4.983403 -0.393502 0.104172 189
4.983048 -0.393474 0.120034 84
4.982643 -0.393442 0.135896 207
4.982188 -0.393406 0.151756 253
4.981683 -0.393366 0.167614 124
4.981128 -0.393322 0.183471 235
4.980522 -0.393275 0.199326 122
4.979867 -0.393223 0.215179 90
4.979161 -0.393167 0.231030 95
4.985235 -0.379780 0.056578 248
4.985031 -0.379765 0.072443 95
4.984776 -0.379745 0.088308 88
4.984472 -0.379722 0.104172 54
4.984117 -0.379695 0.120034 104
4.983712 -0.379664 0.135896 194
4.983257 -0.379630 0.151756 95
4.982752 -0.379591 0.167614 41
4.982196 -0.379549 0.183471 222
4.981591 -0.379503 0.199326 65
4.980935 -0.379453 0.215179 207
4.980229 -0.379399 0.231030 93
4.986266 -0.365995 0.056578 162
4.986062 -0.365980 0.072443 142
4.985807 -0.365962 0.088308 74
4.985503 -0.365939 0.104172 153
4.985148 -0.365913 0.120034 140
4.984743 -0.365883 0.135896 172
4.984288 -0.365850 0.151756 95
4.983782 -0.365813 0.167614 170
4.983227 -0.365772 0.183471 14
4.982621 -0.365728 0.199326 82
4.981965 -0.365680 0.215179 243
4.981259 -0.365628 0.231030 23
4.987259 -0.352207 0.056578 223
4.987054 -0.352193 0.072443 177
4.986800 -0.352175 0.088308 89
4.986495 -0.352154 0.104172 141
4.986141 -0.352128 0.120034 153
4.985735 -0.352100 0.135896 163
4.985280 -0.352068 0.151756 205
4.984775 -0.352032 0.167614 195
4.984219 -0.351993 0.183471 52
4.983613 -0.351950 0.199326 131
4.982957 -0.351904 0.215179 139
4.982251 -0.351854 0.231030 96
4.998605 -0.103669 0.056578 37
4.998400 -0.103665 0.072443 136
4.998145 -0.103659 0.088308 235
4.997840 -0.103653 0.104172 145
4.997484 -0.103646 0.120034 131
4.997078 -0.103637 0.135896 143
4.996622 -0.103628 0.151756 222
4.996115 -0.103617 0.167614 38
4.995558 -0.103606 0.183471 19
4.994951 -0.103593 0.199326 57
4.994294 -0.103579 0.215179 68
4.993586 -0.103565 0.231030 95
4.998872 -0.089848 0.056578 238
4.998668 -0.089844 0.072443 160
4.998413 -0.089840 0.088308 71
4.998107 -0.089834 0.104172 27
4.997752 -0.089828 0.120034 79
4.997346 -0.089821 0.135896 237
4.996889 -0.089812 0.151756 148
4.996383 -0.089803 0.167614 185
4.995826 -0.089793 0.183471 135
4.995219 -0.089782 0.199326 236
4.994561 -0.089770 0.215179 59
4.993853 -0.089758 0.231030 210
4.999102 -0.076026 0.056578 109
4.998897 -0.076023 0.072443 160
4.998642 -0.076019 0.088308 92
4.998337 -0.076015 0.104172 130
4.997981 -0.076009 0.120034 129
4.997575 -0.076003 0.135896 148
4.997119 -0.075996 0.151756 152
4.996612 -0.075988 0.167614 189
4.996055 -0.075980 0.183471 189
4.995448 -0.075971 0.199326 253
4.994790 -0.075961 0.215179 203
4.994082 -0.075950 0.231030 35
4.999293 -0.062204 0.056578 131
4.999088 -0.062202 0.072443 43
4.998833 -0.062198 0.088308 199
4.998528 -0.062195 0.104172 117
4.998172 -0.062190 0.120034 30
4.997766 -0.062185 0.135896 177
4.997310 -0.062179 0.151756 78
4.996803 -0.062173 0.167614 37
4.996246 -0.062166 0.183471 125
4.995639 -0.062159 0.199326 95
4.994981 -0.062151 0.215179 138
4.994273 -0.062142 0.231030 153
4.999446 -0.048382 0.056578 124
4.999241 -0.048380 0.072443 192
4.998986 -0.048377 0.088308 104
4.998681 -0.048374 0.104172 128
4.998325 -0.048371 0.120034 76
4.997919 -0.048367 0.135896 27
4.997462 -0.048362 0.151756 41
4.996956 -0.048357 0.167614 227
4.996399 -0.048352 0.183471 140
4.995791 -0.048346 0.199326 69
4.995134 -0.048340 0.215179 94
4.994426 -0.048333 0.231030 36
3.865424 -3.171293 0.037400 33
3.865312 -3.171202 0.053266 246
3.865162 -3.171079 0.069131 50
3.864973 -3.170924 0.084996 138
3.864745 -3.170737 0.100860 19
3.864478 -3.170518 0.116722 84
3.864173 -3.170267 0.132584 139
3.863828 -3.169984 0.148445 164
3.863444 -3.169669 0.164303 153
3.863022 -3.169323 0.180161 18
3.862560 -3.168944 0.196016 194
3.862060 -3.168534 0.211869 137
3.874177 -3.160594 0.037400 228
3.874066 -3.160503 0.053266 141
3.873915 -3.160380 0.069131 172
3.873726 -3.160225 0.084996 222
3.873497 -3.160039 0.100860 199
3.873230 -3.159821 0.116722 89
3.872923 -3.159571 0.132584 201
3.872578 -3.159289 0.148445 241
3.872193 -3.158975 0.164303 141
3.871770 -3.158630 0.180161 31
3.871307 -3.158252 0.196016 255
3.870806 -3.157843 0.211869 87
3.882901 -3.149870 0.037400 188
3.882789 -3.149779 0.053266 36
3.882639 -3.149657 0.069131 101
3.882449 -3.149503 0.084996 227
3.882220 -3.149317 0.100860 19
3.881952 -3.149100 0.116722 108
3.881644 -3.148850 0.132584 49
3.881298 -3.148569 0.148445 88
3.880913 -3.148257 0.164303 21
3.880488 -3.147913 0.180161 37
3.880025 -3.147537 0.196016 153
3.879522 -3.147129 0.211869 113
3.891595 -3.139122 0.037400 89
3.891483 -3.139032 0.053266 104
3.891332 -3.138910 0.069131 67
3.891142 -3.138757 0.084996 239
3.890912 -3.138571 0.100860 110
3.890643 -3.138355 0.116722 152
3.890335 -3.138106 0.132584 121
3.889988 -3.137826 0.148445 101
3.889602 -3.137515 0.164303 61
3.889177 -3.137172 0.180161 255
3.888712 -3.136797 0.196016 158
3.888209 -3.136391 0.211869 15
3.976890 -3.030338 0.037400 199
3.976775 -3.030251 0.053266 11
3.976621 -3.030133 0.069131 21
3.976426 -3.029985 0.084996 202
3.976192 -3.029806 0.100860 190
3.975917 -3.029597 0.116722 19
3.975602 -3.029357 0.132584 163
3.975248 -3.029087 0.148445 204
3.974853 -3.028786 0.164303 23
3.974418 -3.028455 0.180161 141
3.973944 -3.028093 0.196016 24
3.973429 -3.027701 0.211869 224
3.985253 -3.019331 0.037400 135
3.985138 -3.019244 0.053266 58
3.984984 -3.019127 0.069131 60
3.984789 -3.018979 0.084996 204
3.984554 -3.018801 0.100860 68
3.984278 -3.018593 0.116722 172
3.983963 -3.018354 0.132584 223
3.983608 -3.018085 0.148445 24
3.983212 -3.017785 0.164303 97
3.982776 -3.017455 0.180161 88
3.982301 -3.017094 0.196016 89
3.981785 -3.016704 0.211869 100
3.993586 -3.008301 0.037400 62
3.993471 -3.008214 0.053266 153
3.993316 -3.008098 0.069131 125
3.993120 -3.007950 0.084996 191
3.992885 -3.007773 0.100860 30
3.992609 -3.007565 0.116722 216
3.992293 -3.007327 0.132584 233
3.991937 -3.007059 0.148445 26
3.991541 -3.006760 0.164303 27
3.991104 -3.006432 0.180161 170
3.990627 -3.006072 0.196016 245
3.990110 -3.005683 0.211869 82
4.001888 -2.997248 0.037400 108
4.001773 -2.997161 0.053266 49
4.001617 -2.997045 0.069131 239
4.001422 -2.996898 0.084996 41
4.001186 -2.996722 0.100860 97
4.000909 -2.996515 0.116722 240
4.000593 -2.996278 0.132584 39
4.000236 -2.996010 0.148445 177
3.999839 -2.995713 0.164303 139
3.999401 -2.995385 0.180161 125
3.998923 -2.995027 0.196016 174
3.998405 -2.994639 0.211869 13
4.010160 -2.986171 0.037400 101
4.010044 -2.986086 0.053266 120
4.009889 -2.985970 0.069131 57
4.009692 -2.985823 0.084996 99
4.009456 -2.985647 0.100860 60
4.009179 -2.985441 0.116722 131
4.008862 -2.985205 0.132584 66
4.008504 -2.984939 0.148445 232
4.008106 -2.984642 0.164303 228
4.007668 -2.984316 0.180161 130
4.007189 -2.983959 0.196016 194
4.006670 -2.983573 0.211869 204
4.018401 -2.975072 0.037400 96
4.018285 -2.974987 0.053266 182
4.018129 -2.974871 0.069131 173
4.017933 -2.974726 0.084996 146
4.017696 -2.974550 0.100860 16
4.017418 -2.974345 0.116722 17
4.017100 -2.974109 0.132584 195
4.016742 -2.973844 0.148445 61
4.016343 -2.973549 0.164303 155
4.015904 -2.973224 0.180161 120
4.015424 -2.972868 0.196016 191
4.014904 -2.972483 0.211869 111
4.026611 -2.963951 0.037400 95
4.026495 -2.963865 0.053266 208
4.026339 -2.963750 0.069131 42
4.026142 -2.963605 0.084996 102
4.025905 -2.963430 0.100860 42
4.025627 -2.963226 0.116722 234
4.025308 -2.962991 0.132584 235
4.024949 -2.962727 0.148445 191
4.024549 -2.962433 0.164303 238
4.024109 -2.962109 0.180161 117
4.023628 -2.961755 0.196016 245
4.023107 -2.961371 0.211869 87
4.034791 -2.952806 0.037400 106
4.034675 -2.952721 0.053266 226
4.034518 -2.952607 0.069131 93
4.034321 -2.952462 0.084996 60
4.034083 -2.952288 0.100860 65
4.033804 -2.952084 0.116722 42
4.033485 -2.951851 0.132584 226
4.033125 -2.951587 0.148445 100
4.032724 -2.951294 0.164303 18
4.032283 -2.950971 0.180161 166
4.031802 -2.950619 0.196016 190
4.031280 -2.950237 0.211869 132
4.107011 -2.851501 0.037400 254
4.106893 -2.851419 0.053266 38
4.106734 -2.851308 0.069131 180
4.106533 -2.851169 0.084996 226
4.106291 -2.851001 0.100860 29
4.106007 -2.850804 0.116722 178
4.105682 -2.850578 0.132584 216
4.105316 -2.850324 0.148445 215
4.104908 -2.850041 0.164303 170
4.104459 -2.849729 0.180161 235
4.103969 -2.849389 0.196016 216
4.103437 -2.849020 0.211869 36
4.114880 -2.840135 0.037400 110
4.114761 -2.840053 0.053266 33
4.114602 -2.839943 0.069131 105
4.114400 -2.839804 0.084996 40
4.114158 -2.839636 0.100860 161
4.113873 -2.839440 0.116722 127
4.113548 -2.839216 0.132584 236
4.113181 -2.838962 0.148445 125
4.112773 -2.838680 0.164303 187
4.112323 -2.838370 0.180161 208
4.111831 -2.838031 0.196016 90
4.111299 -2.837663 0.211869 61
4.122717 -2.828747 0.037400 119
4.122598 -2.828665 0.053266 209
4.122438 -2.828556 0.069131 116
4.122236 -2.828417 0.084996 200
4.121993 -2.828250 0.100860 244
4.121708 -2.828055 0.116722 102
4.121382 -2.827831 0.132584 98
4.121015 -2.827579 0.148445 138
4.120605 -2.827298 0.164303 235
4.120155 -2.826989 0.180161 22
4.119663 -2.826651 0.196016 247
4.119129 -2.826285 0.211869 80
4.130522 -2.817337 0.037400 251
4.130403 -2.817256 0.053266 192
4.130243 -2.817147 0.069131 241
4.130041 -2.817009 0.084996 186
4.129797 -2.816843 0.100860 172
4.129512 -2.816648 0.116722 138
4.129185 -2.816426 0.132584 233
4.128817 -2.816174 0.148445 207
4.128407 -2.815895 0.164303 220
4.127955 -2.815587 0.180161 210
4.127462 -2.815250 0.196016 54
4.126927 -2.814886 0.211869 185
4.138296 -2.805906 0.037400 131
4.138177 -2.805825 0.053266 29
4.138016 -2.805716 0.069131 68
4.137814 -2.805579 0.084996 198
4.137569 -2.805414 0.100860 110
4.137284 -2.805220 0.116722 225
4.136956 -2.804998 0.132584 18
4.136587 -2.804748 0.148445 235
4.136177 -2.804469 0.164303 247
4.135724 -2.804163 0.180161 157
4.135230 -2.803828 0.196016 122
4.134694 -2.803464 0.211869 216
4.199342 -2.713692 0.037400 223
4.199221 -2.713614 0.053266 76
4.199058 -2.713509 0.069131 33
4.198853 -2.713376 0.084996 117
4.198605 -2.713216 0.100860 103
4.198315 -2.713029 0.116722 216
4.197983 -2.712814 0.132584 48
4.197609 -2.712572 0.148445 41
4.197192 -2.712303 0.164303 97
4.196733 -2.712006 0.180161 100
4.196231 -2.711682 0.196016 127
4.195688 -2.711331 0.211869 224
4.206829 -2.702071 0.037400 49
4.206708 -2.701993 0.053266 239
4.206545 -2.701888 0.069131 164
4.206339 -2.701756 0.084996 110
4.206091 -2.701597 0.100860 194
4.205800 -2.701410 0.116722 211
4.205468 -2.701197 0.132584 110
4.205093 -2.700956 0.148445 125
4.204675 -2.700687 0.164303 189
4.204215 -2.700392 0.180161 244
4.203713 -2.700070 0.196016 13
4.203168 -2.699720 0.211869 218
4.214284 -2.690429 0.037400 253
4.214163 -2.690352 0.053266 54
4.213999 -2.690248 0.069131 51
4.213793 -2.690116 0.084996 239
4.213545 -2.689957 0.100860 11
4.213254 -2.689771 0.116722 52
4.212920 -2.689559 0.132584 103
4.212544 -2.689319 0.148445 179
4.212126 -2.689052 0.164303 104
4.211665 -2.688758 0.180161 32
4.211162 -2.688436 0.196016 228
4.210617 -2.688088 0.211869 185
4.221707 -2.678767 0.037400 238
4.221585 -2.678690 0.053266 96
4.221421 -2.678586 0.069131 245
4.221215 -2.678455 0.084996 197
4.220966 -2.678297 0.100860 102
4.220674 -2.678112 0.116722 144
4.220340 -2.677900 0.132584 212
4.219964 -2.677661 0.148445 200
4.219545 -2.677395 0.164303 96
4.219083 -2.677102 0.180161 61
4.218579 -2.676783 0.196016 14
4.218033 -2.676436 0.211869 151
4.229097 -2.667085 0.037400 67
4.228975 -2.667008 0.053266 211
4.228811 -2.666904 0.069131 175
4.228604 -2.666774 0.084996 116
4.228355 -2.666617 0.100860 225
4.228063 -2.666432 0.116722 94
4.227728 -2.666221 0.132584 196
4.227351 -2.665983 0.148445 52
4.226931 -2.665719 0.164303 168
4.226469 -2.665427 0.180161 232
4.225964 -2.665109 0.196016 190
4.225417 -2.664764 0.211869 101
4.435528 -2.307529 0.037400 165
4.435401 -2.307463 0.053266 96
4.435228 -2.307373 0.069131 74
4.435011 -2.307260 0.084996 105
4.434750 -2.307124 0.100860 17
4.434444 -2.306965 0.116722 172
4.434093 -2.306782 0.132584 61
4.433697 -2.306576 0.148445 83
4.433257 -2.306347 0.164303 68
4.432772 -2.306095 0.180161 184
4.432243 -2.305820 0.196016 22
4.431668 -2.305521 0.211869 18
4.441891 -2.295256 0.037400 83
4.441764 -2.295190 0.053266 16
4.441591 -2.295101 0.069131 69
4.441374 -2.294989 0.084996 23
4.441112 -2.294854 0.100860 173
4.440805 -2.294695 0.116722 75
4.440454 -2.294513 0.132584 153
4.440058 -2.294309 0.148445 101
4.439617 -2.294081 0.164303 175
4.439131 -2.293830 0.180161 42
4.438601 -2.293556 0.196016 54
4.438026 -2.293259 0.211869 230
4.448221 -2.282966 0.037400 245
4.448093 -2.282901 0.053266 228
4.447920 -2.282812 0.069131 121
4.447702 -2.282700 0.084996 225
4.447440 -2.282566 0.100860 158
4.447133 -2.282408 0.116722 153
4.446781 -2.282227 0.132584 36
4.446384 -2.282024 0.148445 252
4.445943 -2.281797 0.164303 216
4.445456 -2.281548 0.180161 172
4.444925 -2.281275 0.196016 31
4.444350 -2.280980 0.211869 59
4.454516 -2.270659 0.037400 108
4.454388 -2.270593 0.053266 125
4.454214 -2.270505 0.069131 186
4.453997 -2.270394 0.084996 61
4.453734 -2.270260 0.100860 203
4.453426 -2.270104 0.116722 151
4.453074 -2.269924 0.132584 235
4.452677 -2.269721 0.148445 109
4.452235 -2.269496 0.164303 103
4.451748 -2.269248 0.180161 119
4.451216 -2.268977 0.196016 25
4.450639 -2.268683 0.211869 72
4.460777 -2.258334 0.037400 40
4.460648 -2.258269 0.053266 206
4.460475 -2.258181 0.069131 209
4.460257 -2.258071 0.084996 108
4.459994 -2.257938 0.100860 211
4.459686 -2.257782 0.116722 98
4.459333 -2.257603 0.132584 166
4.458935 -2.257402 0.148445 226
4.458492 -2.257177 0.164303 113
4.458005 -2.256931 0.180161 195
4.457472 -2.256661 0.196016 35
4.456895 -2.256369 0.211869 135
4.567600 -2.033626 0.037400 197
4.567468 -2.033568 0.053266 226
4.567291 -2.033489 0.069131 110
4.567067 -2.033389 0.084996 84
4.566798 -2.033269 0.100860 177
4.566482 -2.033129 0.116722 101
4.566121 -2.032968 0.132584 178
4.565714 -2.032787 0.148445 249
4.565260 -2.032585 0.164303 62
4.564761 -2.032363 0.180161 177
4.564216 -2.032120 0.196016 61
4.563625 -2.031857 0.211869 147
4.573205 -2.020990 0.037400 55
4.573073 -2.020931 0.053266 106
4.572896 -2.020853 0.069131 39
4.572672 -2.020754 0.084996 231
4.572402 -2.020635 0.100860 55
4.572086 -2.020495 0.116722 196
4.571725 -2.020336 0.132584 51
4.571317 -2.020155 0.148445 55
4.570863 -2.019955 0.164303 232
4.570363 -2.019734 0.180161 202
4.569817 -2.019493 0.196016 11
4.569225 -2.019231 0.211869 195
4.578775 -2.008338 0.037400 106
4.578643 -2.008280 0.053266 96
4.578465 -2.008202 0.069131 239
4.578242 -2.008104 0.084996 75
4.577971 -2.007985 0.100860 235
4.577655 -2.007847 0.116722 222
4.577293 -2.007688 0.132584 92
4.576885 -2.007509 0.148445 67
4.576430 -2.007309 0.164303 45
4.575930 -2.007090 0.180161 70
4.575383 -2.006850 0.196016 153
4.574791 -2.006590 0.211869 160
4.584310 -1.995670 0.037400 221
4.584179 -1.995613 0.053266 90
4.584000 -1.995535 0.069131 198
4.583776 -1.995438 0.084996 91
4.583506 -1.995320 0.100860 10
4.583189 -1.995182 0.116722 55
4.582827 -1.995024 0.132584 99
4.582418 -1.994846 0.148445 56
4.581963 -1.994648 0.164303 245
4.581462 -1.994430 0.180161 63
4.580914 -1.994192 0.196016 169
4.580321 -1.993933 0.211869 234
4.589811 -1.982988 0.037400 243
4.589679 -1.982931 0.053266 46
4.589500 -1.982854 0.069131 78
4.589276 -1.982757 0.084996 102
4.589005 -1.982640 0.100860 68
4.588688 -1.982503 0.116722 99
4.588325 -1.982346 0.132584 12
4.587916 -1.982169 0.148445 212
4.587460 -1.981972 0.164303 148
4.586958 -1.981755 0.180161 157
4.586411 -1.981519 0.196016 114
4.585816 -1.981262 0.211869 226
4.595276 -1.970290 0.037400 226
4.595144 -1.970233 0.053266 240
4.594965 -1.970156 0.069131 231
4.594740 -1.970060 0.084996 114
4.594469 -1.969944 0.100860 229
4.594152 -1.969808 0.116722 177
4.593788 -1.969652 0.132584 114
4.593379 -1.969476 0.148445 169
4.592923 -1.969281 0.164303 109
4.592420 -1.969065 0.180161 87
4.591872 -1.968830 0.196016 223
4.591277 -1.968575 0.211869 112
4.687603 -1.739248 0.037400 210
4.687468 -1.739198 0.053266 32
4.687286 -1.739130 0.069131 137
4.687056 -1.739045 0.084996 154
4.686780 -1.738943 0.100860 118
4.686456 -1.738822 0.116722 224
4.686085 -1.738685 0.132584 146
4.685667 -1.738530 0.148445 234
4.685202 -1.738357 0.164303 104
4.684690 -1.738167 0.180161 247
4.684130 -1.737959 0.196016 97
4.683523 -1.737734 0.211869 203
4.692394 -1.726280 0.037400 45
4.692259 -1.726231 0.053266 26
4.692076 -1.726164 0.069131 45
4.691847 -1.726079 0.084996 161
4.691570 -1.725977 0.100860 11
4.691246 -1.725858 0.116722 72
4.690875 -1.725722 0.132584 109
4.690456 -1.725568 0.148445 88
4.689991 -1.725396 0.164303 177
4.689478 -1.725208 0.180161 143
4.688917 -1.725002 0.196016 58
4.688310 -1.724778 0.211869 57
4.697149 -1.713300 0.037400 245
4.697013 -1.713251 0.053266 161
4.696831 -1.713184 0.069131 80
4.696601 -1.713100 0.084996 222
4.696324 -1.712999 0.100860 127
4.696000 -1.712881 0.116722 211
4.695628 -1.712746 0.132584 201
4.695209 -1.712593 0.148445 13
4.694743 -1.712423 0.164303 49
4.694230 -1.712235 0.180161 126
4.693669 -1.712031 0.196016 244
4.693061 -1.711809 0.211869 109
4.701868 -1.700306 0.037400 223
4.701732 -1.700257 0.053266 175
4.701550 -1.700191 0.069131 105
4.701320 -1.700108 0.084996 161
4.701042 -1.700008 0.100860 216
4.700718 -1.699891 0.116722 225
4.700346 -1.699756 0.132584 66
4.699926 -1.699604 0.148445 163
4.699460 -1.699436 0.164303 248
4.698946 -1.699250 0.180161 173
4.698385 -1.699047 0.196016 194
4.697776 -1.698827 0.211869 87
4.706551 -1.687300 0.037400 233
4.706415 -1.687251 0.053266 103
4.706233 -1.687186 0.069131 198
4.706002 -1.687103 0.084996 50
4.705725 -1.687004 0.100860 15
4.705400 -1.686887 0.116722 52
4.705027 -1.686754 0.132584 157
4.704608 -1.686603 0.148445 88
4.704141 -1.686436 0.164303 52
4.703626 -1.686251 0.180161 64
4.703064 -1.686050 0.196016 173
4.702455 -1.685832 0.211869 26
4.864023 -1.157530 0.037400 246
4.863884 -1.157497 0.053266 139
4.863695 -1.157452 0.069131 147
4.863457 -1.157396 0.084996 133
4.863170 -1.157327 0.100860 75
4.862834 -1.157247 0.116722 225
4.862449 -1.157156 0.132584 196
4.862015 -1.157053 0.148445 158
4.861533 -1.156938 0.164303 195
4.861001 -1.156811 0.180161 180
4.860420 -1.156673 0.196016 58
4.859791 -1.156523 0.211869 170
4.867205 -1.144078 0.037400 254
4.867065 -1.144045 0.053266 46
4.866876 -1.144000 0.069131 229
4.866638 -1.143944 0.084996 156
4.866351 -1.143877 0.100860 51
4.866015 -1.143798 0.116722 89
4.865630 -1.143707 0.132584 39
4.865196 -1.143605 0.148445 49
4.864713 -1.143492 0.164303 239
4.864181 -1.143367 0.180161 73
4.863600 -1.143230 0.196016 76
4.862970 -1.143082 0.211869 26
4.870350 -1.130616 0.037400 103
4.870210 -1.130583 0.053266 207
4.870021 -1.130540 0.069131 181
4.869782 -1.130484 0.084996 23
4.869495 -1.130418 0.100860 129
4.869159 -1.130340 0.116722 197
4.868774 -1.130250 0.132584 101
4.868339 -1.130149 0.148445 139
4.867856 -1.130037 0.164303 234
4.867323 -1.129913 0.180161 21
4.866742 -1.129778 0.196016 219
4.866112 -1.129632 0.211869 226
4.873457 -1.117146 0.037400 78
4.873317 -1.117114 0.053266 224
4.873128 -1.117070 0.069131 25
4.872889 -1.117016 0.084996 181
4.872602 -1.116950 0.100860 151
4.872266 -1.116873 0.116722 187
4.871880 -1.116784 0.132584 167
4.871445 -1.116685 0.148445 94
4.870962 -1.116574 0.164303 40
4.870429 -1.116452 0.180161 229
4.869847 -1.116318 0.196016 193
4.869216 -1.116174 0.211869 177
4.876528 -1.103667 0.037400 254
4.876387 -1.103635 0.053266 139
4.876198 -1.103592 0.069131 223
4.875959 -1.103538 0.084996 23
4.875672 -1.103473 0.100860 29
4.875335 -1.103397 0.116722 155
4.874949 -1.103310 0.132584 168
4.874514 -1.103211 0.148445 198
4.874030 -1.103102 0.164303 55
4.873497 -1.102981 0.180161 14
4.872915 -1.102849 0.196016 46
4.872284 -1.102706 0.211869 203
4.920565 -0.886930 0.037400 47
4.920423 -0.886904 0.053266 29
4.920232 -0.886870 0.069131 199
4.919991 -0.886826 0.084996 66
4.919701 -0.886774 0.100860 91
4.919361 -0.886713 0.116722 101
4.918972 -0.886642 0.132584 213
4.918533 -0.886563 0.148445 71
4.918045 -0.886475 0.164303 179
4.917507 -0.886378 0.180161 211
4.916920 -0.886273 0.196016 149
4.916283 -0.886158 0.211869 199
4.922998 -0.873321 0.037400 39
4.922857 -0.873296 0.053266 163
4.922665 -0.873262 0.069131 246
4.922425 -0.873220 0.084996 66
4.922134 -0.873168 0.100860 143
4.921794 -0.873108 0.116722 203
4.921405 -0.873039 0.132584 172
4.920966 -0.872961 0.148445 190
4.920477 -0.872874 0.164303 19
4.919939 -0.872779 0.180161 56
4.919351 -0.872674 0.196016 114
4.918714 -0.872561 0.211869 89
4.925394 -0.859707 0.037400 248
4.925252 -0.859682 0.053266 121
4.925061 -0.859648 0.069131 70
4.924820 -0.859606 0.084996 172
4.924530 -0.859556 0.100860 162
4.924189 -0.859496 0.116722 92
4.923800 -0.859428 0.132584 169
4.923361 -0.859352 0.148445 245
4.922872 -0.859266 0.164303 248
4.922333 -0.859172 0.180161 60
4.921745 -0.859070 0.196016 160
4.921108 -0.858958 0.211869 227
4.927752 -0.846085 0.037400 188
4.927610 -0.846061 0.053266 156
4.927419 -0.846028 0.069131 210
4.927178 -0.845987 0.084996 205
4.926887 -0.845937 0.100860 76
4.926547 -0.845878 0.116722 210
4.926157 -0.845811 0.132584 79
4.925718 -0.845736 0.148445 209
4.925229 -0.845652 0.164303 222
4.924690 -0.845559 0.180161 105
4.924102 -0.845458 0.196016 160
4.923464 -0.845349 0.211869 184
4.930073 -0.832457 0.037400 15
4.929931 -0.832433 0.053266 17
4.929739 -0.832401 0.069131 128
4.929498 -0.832360 0.084996 29
4.929207 -0.832311 0.100860 148
4.928867 -0.832254 0.116722 21
4.928477 -0.832188 0.132584 21
4.928037 -0.832114 0.148445 121
4.927548 -0.832031 0.164303 105
4.927009 -0.831940 0.180161 226
4.926420 -0.831841 0.196016 60
4.925782 -0.831733 0.211869 239
4.968546 -0.558703 0.037400 12
4.968403 -0.558687 0.053266 215
4.968210 -0.558665 0.069131 16
4.967967 -0.558638 0.084996 202
4.967674 -0.558605 0.100860 146
4.967331 -0.558566 0.116722 136
4.966938 -0.558522 0.132584 74
4.966495 -0.558472 0.148445 174
4.966002 -0.558417 0.164303 193
4.965459 -0.558356 0.180161 189
4.964866 -0.558289 0.196016 16
4.964223 -0.558217 0.211869 62
4.970072 -0.544963 0.037400 211
4.969929 -0.544948 0.053266 224
4.969736 -0.544926 0.069131 145
4.969493 -0.544900 0.084996 85
4.969200 -0.544868 0.100860 161
4.968857 -0.544830 0.116722 129
4.968463 -0.544787 0.132584 175
4.968020 -0.544738 0.148445 219
4.967527 -0.544684 0.164303 10
4.966984 -0.544625 0.180161 115
4.966390 -0.544560 0.196016 182
4.965747 -0.544489 0.211869 202
4.971560 -0.531220 0.037400 238
4.971417 -0.531204 0.053266 116
4.971224 -0.531184 0.069131 51
4.970981 -0.531158 0.084996 252
4.970687 -0.531126 0.100860 255
4.970344 -0.531090 0.116722 205
4.969951 -0.531048 0.132584 172
4.969507 -0.531000 0.148445 106
4.969014 -0.530948 0.164303 143
4.968470 -0.530889 0.180161 205
4.967877 -0.530826 0.196016 210
4.967233 -0.530757 0.211869 50
4.973010 -0.517472 0.037400 246
4.972866 -0.517457 0.053266 77
4.972673 -0.517437 0.069131 210
4.972430 -0.517412 0.084996 248
4.972137 -0.517381 0.100860 92
4.971793 -0.517345 0.116722 184
4.971400 -0.517304 0.132584 100
4.970956 -0.517258 0.148445 80
4.970463 -0.517207 0.164303 252
4.969919 -0.517150 0.180161 34
4.969326 -0.517088 0.196016 126
4.968682 -0.517022 0.211869 37
4.974421 -0.503720 0.037400 31
4.974278 -0.503706 0.053266 126
4.974085 -0.503686 0.069131 97
4.973842 -0.503661 0.084996 32
4.973548 -0.503632 0.100860 32
4.973205 -0.503597 0.116722 85
4.972811 -0.503557 0.132584 43
4.972368 -0.503512 0.148445 211
4.971874 -0.503462 0.164303 174
4.971330 -0.503407 0.180161 126
4.970736 -0.503347 0.196016 126
4.970092 -0.503282 0.211869 216
4.983238 -0.407356 0.037400 120
4.983095 -0.407344 0.053266 251
4.982901 -0.407329 0.069131 179
4.982657 -0.407309 0.084996 147
4.982364 -0.407285 0.100860 195
4.982019 -0.407256 0.116722 223
4.981625 -0.407224 0.132584 123
4.981181 -0.407188 0.148445 19
4.980686 -0.407147 0.164303 19
4.980141 -0.407103 0.180161 120
4.979547 -0.407054 0.196016 212
4.978902 -0.407002 0.211869 66
4.984345 -0.393577 0.037400 134
4.984202 -0.393565 0.053266 136
4.984008 -0.393550 0.069131 245
4.983765 -0.393531 0.084996 43
4.983471 -0.393507 0.100860 85
4.983126 -0.393480 0.116722 248
4.982732 -0.393449 0.132584 129
4.982288 -0.393414 0.148445 22
4.981793 -0.393375 0.164303 113
4.981248 -0.393332 0.180161 14
4.980653 -0.393285 0.196016 244
4.980008 -0.393234 0.211869 142
4.985415 -0.379794 0.037400 186
4.985271 -0.379783 0.053266 117
4.985077 -0.379768 0.069131 102
4.984834 -0.379750 0.084996 123
4.984540 -0.379727 0.100860 102
4.984195 -0.379701 0.116722 163
4.983801 -0.379671 0.132584 231
4.983356 -0.379637 0.148445 112
4.982861 -0.379599 0.164303 85
4.982317 -0.379558 0.180161 190
4.981721 -0.379513 0.196016 116
4.981076 -0.379463 0.211869 92
4.986446 -0.366008 0.037400 189
4.986302 -0.365998 0.053266 212
4.986108 -0.365984 0.069131 116
4.985864 -0.365966 0.084996 86
4.985570 -0.365944 0.100860 83
4.985226 -0.365919 0.116722 16
4.984832 -0.365890 0.132584 252
4.984387 -0.365857 0.148445 64
4.983892 -0.365821 0.164303 129
4.983347 -0.365781 0.180161 156
4.982752 -0.365737 0.196016 247
4.982106 -0.365690 0.211869 73
4.987438 -0.352220 0.037400 250
4.987295 -0.352210 0.053266 204
4.987101 -0.352196 0.069131 75
4.986857 -0.352179 0.084996 118
4.986563 -0.352158 0.100860 112
4.986219 -0.352134 0.116722 48
4.985824 -0.352106 0.132584 104
4.985379 -0.352075 0.148445 198
4.984884 -0.352040 0.164303 210
4.984339 -0.352001 0.180161 179
4.983744 -0.351959 0.196016 76
4.983098 -0.351914 0.211869 139
4.988393 -0.338429 0.037400 137
4.988250 -0.338419 0.053266 150
4.988056 -0.338406 0.069131 237
4.987812 -0.338390 0.084996 13
4.987518 -0.338370 0.100860 176
4.987173 -0.338346 0.116722 230
4.986779 -0.338320 0.132584 201
4.986334 -0.338289 0.148445 53
4.985839 -0.338256 0.164303 109
4.985293 -0.338219 0.180161 122
4.984698 -0.338178 0.196016 198
4.984052 -0.338135 0.211869 87
4.998479 -0.117493 0.037400 122
4.998336 -0.117490 0.053266 73
4.998141 -0.117485 0.069131 62
4.997897 -0.117480 0.084996 206
4.997602 -0.117473 0.100860 224
4.997257 -0.117464 0.116722 80
4.996862 -0.117455 0.132584 177
4.996416 -0.117445 0.148445 63
4.995920 -0.117433 0.164303 151
4.995373 -0.117420 0.180161 157
4.994777 -0.117406 0.196016 53
4.994130 -0.117391 0.211869 177
4.998785 -0.103673 0.037400 191
4.998641 -0.103670 0.053266 178
4.998447 -0.103666 0.069131 61
4.998203 -0.103661 0.084996 134
4.997908 -0.103654 0.100860 255
4.997563 -0.103647 0.116722 102
4.997167 -0.103639 0.132584 196
4.996721 -0.103630 0.148445 119
4.996225 -0.103620 0.164303 60
4.995679 -0.103608 0.180161 155
4.995082 -0.103596 0.196016 71
4.994435 -0.103582 0.211869 191
4.999053 -0.089851 0.037400 43
4.998909 -0.089849 0.053266 169
4.998715 -0.089845 0.069131 138
4.998470 -0.089841 0.084996 94
4.998175 -0.089835 0.100860 114
4.997830 -0.089829 0.116722 174
4.997435 -0.089822 0.132584 224
4.996989 -0.089814 0.148445 223
4.996493 -0.089805 0.164303 87
4.995946 -0.089795 0.180161 10
4.995349 -0.089785 0.196016 33
4.994702 -0.089773 0.211869 40
4.999282 -0.076029 0.037400 158
4.999138 -0.076027 0.053266 18
4.998944 -0.076024 0.069131 170
4.998699 -0.076020 0.084996 70
4.998405 -0.076016 0.100860 122
4.998059 -0.076010 0.116722 134
4.997664 -0.076004 0.132584 90
4.997218 -0.075998 0.148445 165
4.996722 -0.075990 0.164303 62
4.996175 -0.075982 0.180161 191
4.995579 -0.075973 0.196016 247
4.994932 -0.075963 0.211869 178
4.999473 -0.062206 0.037400 71
4.999329 -0.062205 0.053266 177
4.999135 -0.062202 0.069131 230
4.998891 -0.062199 0.084996 203
4.998596 -0.062195 0.100860 244
4.998251 -0.062191 0.116722 158
4.997855 -0.062186 0.132584 223
4.997409 -0.062181 0.148445 211
4.996913 -0.062175 0.164303 74
4.996366 -0.062168 0.180161 247
4.995770 -0.062160 0.196016 71
4.995122 -0.062152 0.211869 227
3.865506 -3.171361 0.018220 185
3.865442 -3.171308 0.034087 21
3.865339 -3.171224 0.049953 135
3.865197 -3.171107 0.065818 55
3.865016 -3.170959 0.081683 26
3.864796 -3.170778 0.097547 167
3.864537 -3.170566 0.113411 181
3.864240 -3.170322 0.129272 81
3.863903 -3.170046 0.145133 244
3.863528 -3.169738 0.160992 226
3.863113 -3.169398 0.176850 69
3.862660 -3.169026 0.192706 155
3.874260 -3.160661 0.018220 195
3.874196 -3.160609 0.034087 183
3.874092 -3.160524 0.049953 206
3.873950 -3.160408 0.065818 220
3.873769 -3.160260 0.081683 121
3.873548 -3.160081 0.097547 236
3.873289 -3.159869 0.113411 223
3.872990 -3.159626 0.129272 230
3.872653 -3.159350 0.145133 254
3.872277 -3.159043 0.160992 59
3.871861 -3.158704 0.176850 203
3.871407 -3.158334 0.192706 253
3.882984 -3.149937 0.018220 60
3.882919 -3.149885 0.034087 199
3.882816 -3.149801 0.049953 189
3.882673 -3.149685 0.065818 208
3.882492 -3.149538 0.081683 139
3.882271 -3.149359 0.097547 71
3.882011 -3.149148 0.113411 17
3.881712 -3.148905 0.129272 84
3.881374 -3.148631 0.145133 131
3.880996 -3.148325 0.160992 172
3.880580 -3.147987 0.176850 16
3.880125 -3.147618 0.192706 65
3.891678 -3.139189 0.018220 196
3.891614 -3.139137 0.034087 37
3.891510 -3.139053 0.049953 168
3.891367 -3.138938 0.065818 235
3.891185 -3.138791 0.081683 220
3.890963 -3.138613 0.097547 212
3.890703 -3.138403 0.113411 94
3.890403 -3.138161 0.129272 37
3.890064 -3.137887 0.145133 182
3.889686 -3.137582 0.160992 109
3.889269 -3.137246 0.176850 207
3.888812 -3.136878 0.192706 101
3.976974 -3.030403 0.018220 78
3.976908 -3.030353 0.034087 35
3.976802 -3.030272 0.049953 242
3.976656 -3.030161 0.065818 192
3.976470 -3.030019 0.081683 112
3.976244 -3.029846 0.097547 85
3.975978 -3.029643 0.113411 38
3.975671 -3.029410 0.129272 150
3.975325 -3.029146 0.145133 34
3.974939 -3.028852 0.160992 95
3.974512 -3.028527 0.176850 116
3.974046 -3.028172 0.192706 214
3.985338 -3.019395 0.018220 165
3.985272 -3.019345 0.034087 48
3.985166 -3.019265 0.049953 76
3.985019 -3.019154 0.065818 174
3.984833 -3.019013 0.081683 102
3.984606 -3.018841 0.097547 189
3.984339 -3.018639 0.113411 87
3.984032 -3.018406 0.129272 228
3.983685 -3.018143 0.145133 195
3.983298 -3.017850 0.160992 25
3.982871 -3.017526 0.176850 58
3.982403 -3.017172 0.192706 132
3.993671 -3.008365 0.018220 237
3.993605 -3.008315 0.034087 111
3.993498 -3.008235 0.049953 166
3.993351 -3.008124 0.065818 176
3.993164 -3.007984 0.081683 155
3.992937 -3.007813 0.097547 99
3.992670 -3.007611 0.113411 192
3.992362 -3.007380 0.129272 43
3.992015 -3.007118 0.145133 245
3.991627 -3.006825 0.160992 149
3.991198 -3.006503 0.176850 203
3.990730 -3.006150 0.192706 41
4.001973 -2.997312 0.018220 122
4.001907 -2.997262 0.034087 145
4.001800 -2.997182 0.049953 141
4.001653 -2.997072 0.065818 202
4.001466 -2.996932 0.081683 239
4.001238 -2.996761 0.097547 184
4.000970 -2.996560 0.113411 243
4.000662 -2.996330 0.129272 120
4.000314 -2.996069 0.145133 124
3.999925 -2.995777 0.160992 211
3.999496 -2.995456 0.176850 73
3.999027 -2.995105 0.192706 110
4.010245 -2.986235 0.018220 84
4.010179 -2.986186 0.034087 85
4.010072 -2.986106 0.049953 48
4.009924 -2.985996 0.065818 161
4.009737 -2.985856 0.081683 37
4.009509 -2.985687 0.097547 250
4.009240 -2.985487 0.113411 102
4.008931 -2.985257 0.129272 184
4.008582 -2.984997 0.145133 134
4.008193 -2.984707 0.160992 84
4.007763 -2.984386 0.176850 85
4.007292 -2.984036 0.192706 166
4.018487 -2.975136 0.018220 19
4.018420 -2.975086 0.034087 133
4.018313 -2.975007 0.049953 125
4.018165 -2.974898 0.065818 205
4.017977 -2.974759 0.081683 176
4.017748 -2.974589 0.097547 168
4.017479 -2.974390 0.113411 223
4.017170 -2.974161 0.129272 137
4.016820 -2.973902 0.145133 244
4.016430 -2.973613 0.160992 142
4.015999 -2.973294 0.176850 35
4.015528 -2.972945 0.192706 127
4.026697 -2.964014 0.018220 101
4.026630 -2.963965 0.034087 116
4.026523 -2.963886 0.049953 57
4.026375 -2.963777 0.065818 219
4.026187 -2.963638 0.081683 43
4.025958 -2.963469 0.097547 154
4.025688 -2.963271 0.113411 101
4.025378 -2.963043 0.129272 251
4.025027 -2.962785 0.145133 171
4.024636 -2.962497 0.160992 208
4.024204 -2.962179 0.176850 22
4.023732 -2.961831 0.192706 101
4.034877 -2.952869 0.018220 87
4.034810 -2.952820 0.034087 101
4.034702 -2.952742 0.049953 48
4.034554 -2.952633 0.065818 84
4.034365 -2.952495 0.081683 131
4.034136 -2.952327 0.097547 181
4.033865 -2.952129 0.113411 71
4.033555 -2.951902 0.129272 29
4.033203 -2.951645 0.145133 76
4.032811 -2.951358 0.160992 87
4.032379 -2.951041 0.176850 12
4.031906 -2.950695 0.192706 101
4.107099 -2.851562 0.018220 173
4.107031 -2.851515 0.034087 142
4.106921 -2.851439 0.049953 184
4.106770 -2.851334 0.065818 143
4.106578 -2.851200 0.081683 62
4.106345 -2.851038 0.097547 10
4.106070 -2.850847 0.113411 25
4.105753 -2.850628 0.129272 232
4.105396 -2.850379 0.145133 42
4.104997 -2.850102 0.160992 77
4.104556 -2.849797 0.176850 72
4.104075 -2.849462 0.192706 251
4.114968 -2.840195 0.018220 232
4.114899 -2.840148 0.034087 121
4.114789 -2.840073 0.049953 185
4.114638 -2.839968 0.065818 68
4.114446 -2.839835 0.081683 33
4.114212 -2.839674 0.097547 237
4.113936 -2.839484 0.113411 139
4.113619 -2.839265 0.129272 170
4.113261 -2.839018 0.145133 15
4.112861 -2.838742 0.160992 237
4.112420 -2.838437 0.176850 242
4.111937 -2.838104 0.192706 194
4.122805 -2.828807 0.018220 203
4.122736 -2.828760 0.034087 131
4.122626 -2.828685 0.049953 97
4.122475 -2.828581 0.065818 81
4.122282 -2.828448 0.081683 122
4.122047 -2.828288 0.097547 196
4.121771 -2.828098 0.113411 71
4.121454 -2.827880 0.129272 185
4.121095 -2.827634 0.145133 156
4.120694 -2.827359 0.160992 230
4.120252 -2.827056 0.176850 155
4.119769 -2.826724 0.192706 201
4.130610 -2.817398 0.018220 171
4.130541 -2.817351 0.034087 38
4.130431 -2.817276 0.049953 163
4.130280 -2.817172 0.065818 238
4.130086 -2.817040 0.081683 129
4.129851 -2.816880 0.097547 130
4.129575 -2.816691 0.113411 21
4.129257 -2.816474 0.129272 14
4.128897 -2.816229 0.145133 156
4.128496 -2.815955 0.160992 249
4.128053 -2.815653 0.176850 172
4.127568 -2.815323 0.192706 105
4.138384 -2.805966 0.018220 152
4.138315 -2.805919 0.034087 195
4.138205 -2.805845 0.049953 70
4.138053 -2.805742 0.065818 109
4.137859 -2.805610 0.081683 56
4.137624 -2.805451 0.097547 164
4.137347 -2.805263 0.113411 67
4.137028 -2.805047 0.129272 249
4.136668 -2.804802 0.145133 154
4.136266 -2.804530 0.160992 134
4.135822 -2.804229 0.176850 52
4.135337 -2.803900 0.192706 132
4.199432 -2.713750 0.018220 145
4.199362 -2.713705 0.034087 46
4.199250 -2.713633 0.049953 145
4.199096 -2.713533 0.065818 209
4.198899 -2.713406 0.081683 13
4.198660 -2.713252 0.097547 239
4.198379 -2.713070 0.113411 220
4.198056 -2.712861 0.129272 46
4.197690 -2.712625 0.145133 112
4.197282 -2.712361 0.160992 177
4.196832 -2.712070 0.176850 102
4.196340 -2.711752 0.192706 76
4.206919 -2.702129 0.018220 88
4.206849 -2.702084 0.034087 225
4.206737 -2.702012 0.049953 147
4.206582 -2.701913 0.065818 13
4.206386 -2.701786 0.081683 229
4.206146 -2.701632 0.097547 12
4.205865 -2.701452 0.113411 49
4.205541 -2.701243 0.129272 51
4.205174 -2.701008 0.145133 243
4.204766 -2.700746 0.160992 174
4.204315 -2.700456 0.176850 248
4.203821 -2.700139 0.192706 31
4.214374 -2.690487 0.018220 225
4.214304 -2.690442 0.034087 134
4.214192 -2.690370 0.049953 167
4.214037 -2.690272 0.065818 110
4.213840 -2.690146 0.081683 247
4.213600 -2.689993 0.097547 248
4.213318 -2.689812 0.113411 152
4.212993 -2.689605 0.129272 198
4.212626 -2.689371 0.145133 106
4.212217 -2.689110 0.160992 98
4.211765 -2.688821 0.176850 121
4.211271 -2.688506 0.192706 239
4.221797 -2.678824 0.018220 207
4.221727 -2.678780 0.034087 179
4.221614 -2.678708 0.049953 166
4.221459 -2.678610 0.065818 22
4.221261 -2.678485 0.081683 252
4.221021 -2.678332 0.097547 248
4.220739 -2.678153 0.113411 248
4.220414 -2.677947 0.129272 134
4.220046 -2.677713 0.145133 136
4.219636 -2.677453 0.160992 212
4.219183 -2.677166 0.176850 69
4.218688 -2.676852 0.192706 128
4.229187 -2.667141 0.018220 64
4.229117 -2.667097 0.034087 52
4.229004 -2.667026 0.049953 133
4.228849 -2.666928 0.065818 70
4.228651 -2.666803 0.081683 200
4.228410 -2.666652 0.097547 165
4.228127 -2.666473 0.113411 142
4.227802 -2.666268 0.129272 188
4.227433 -2.666035 0.145133 181
4.227022 -2.665776 0.160992 168
4.226569 -2.665490 0.176850 103
4.226073 -2.665178 0.192706 192
4.236545 -2.655438 0.018220 132
4.236475 -2.655394 0.034087 75
4.236362 -2.655323 0.049953 195
4.236206 -2.655226 0.065818 122
4.236008 -2.655101 0.081683 29
4.235767 -2.654950 0.097547 129
4.235484 -2.654773 0.113411 115
4.235157 -2.654568 0.129272 22
4.234788 -2.654337 0.145133 245
4.234377 -2.654079 0.160992 166
4.233923 -2.653794 0.176850 229
4.233426 -2.653483 0.192706 236
4.435623 -2.307578 0.018220 82
4.435549 -2.307540 0.034087 113
4.435431 -2.307478 0.049953 93
4.435268 -2.307394 0.065818 242
4.435060 -2.307286 0.081683 201
4.434808 -2.307154 0.097547 183
4.434511 -2.307000 0.113411 232
4.434170 -2.306822 0.129272 21
4.433783 -2.306621 0.145133 60
4.433353 -2.306397 0.160992 239
4.432877 -2.306150 0.176850 254
4.432357 -2.305879 0.192706 236
4.441986 -2.295305 0.018220 176
4.441912 -2.295267 0.034087 67
4.441794 -2.295206 0.049953 50
4.441631 -2.295122 0.065818 195
4.441423 -2.295014 0.081683 35
4.441170 -2.294884 0.097547 76
4.440873 -2.294730 0.113411 126
4.440531 -2.294553 0.129272 153
4.440144 -2.294353 0.145133 53
4.439713 -2.294130 0.160992 136
4.439236 -2.293884 0.176850 128
4.438715 -2.293615 0.192706 19
4.448316 -2.283015 0.018220 161
4.448242 -2.282977 0.034087 47
4.448123 -2.282916 0.049953 48
4.447960 -2.282832 0.065818 172
4.447751 -2.282725 0.081683 153
4.447498 -2.282596 0.097547 81
4.447201 -2.282443 0.113411 53
4.446858 -2.282267 0.129272 96
4.446471 -2.282068 0.145133 159
4.446039 -2.281846 0.160992 101
4.445562 -2.281602 0.176850 36
4.445040 -2.281334 0.192706 185
4.454611 -2.270707 0.018220 114
4.454537 -2.270670 0.034087 111
4.454418 -2.270609 0.049953 201
4.454254 -2.270526 0.065818 19
4.454046 -2.270419 0.081683 25
4.453792 -2.270290 0.097547 192
4.453494 -2.270138 0.113411 117
4.453151 -2.269963 0.129272 149
4.452763 -2.269766 0.145133 33
4.452331 -2.269545 0.160992 53
4.451853 -2.269301 0.176850 215
4.451331 -2.269035 0.192706 19
4.460872 -2.258382 0.018220 211
4.460798 -2.258345 0.034087 70
4.460679 -2.258284 0.049953 216
4.460515 -2.258201 0.065818 190
4.460306 -2.258096 0.081683 206
4.460053 -2.257967 0.097547 171
4.459754 -2.257816 0.113411 128
4.459410 -2.257642 0.129272 89
4.459022 -2.257445 0.145133 144
4.458589 -2.257226 0.160992 126
4.458110 -2.256984 0.176850 184
4.457587 -2.256719 0.192706 226
4.567697 -2.033670 0.018220 230
4.567621 -2.033636 0.034087 24
4.567499 -2.033582 0.049953 155
